# .PCD v0.7 - Point Cloud Data file format
VERSION 0.7
FIELDS x y z
SIZE 4 4 4
TYPE F F F
COUNT 1 1 1
WIDTH 1464
HEIGHT 1
VIEWPOINT 0 0 0 1 0 0 0
POINTS 1464
DATA ascii
4.2571926 -26.313789 -0.46528116
4.5860305 -28.377777 7.7024555
0.98169529 -6.1289315 0.10834454
0.95094138 -5.9502225 0.31579518
1.8217883 -11.399279 -2.2439139
0.9416185 -5.8984981 0.52258581
0.91332525 -5.7341142 0.71293575
4.1614437 -26.156128 -3.2519619
0.82904303 -5.216692 0.83661157
4.1612144 -26.184135 -2.3195629
0.92370093 -5.8188672 1.1452357
4.1584697 -26.225916 -1.3916132
4.4816027 -28.295723 6.6140113
4.1615672 -26.304787 -0.46486232
4.4821234 -28.363081 7.6941729
0.95689279 -6.110589 0.10796059
0.93571472 -5.9890246 0.31767929
1.7798645 -11.39199 -2.2412426
0.91641551 -5.8722205 0.51997113
0.91681892 -5.8882995 0.73170358
4.0621872 -26.119495 -3.2456248
0.81143522 -5.2234583 0.83723736
4.0673451 -26.182753 -2.3181684
4.0626187 -26.212641 -1.3901478
4.378037 -28.280378 6.6068125
4.0648279 -26.287537 -0.46430385
4.3786664 -28.349915 7.6864085
0.93827987 -6.1316824 0.10827474
0.90937775 -5.9567161 0.31579518
1.7386065 -11.38843 -2.2393346
0.90582311 -5.9403811 0.5257234
0.89028871 -5.8522134 0.72682881
3.9650233 -26.094265 -3.2407498
0.79971796 -5.2692251 0.8441205
3.9693475 -26.153452 -2.3143334
0.9063012 -5.978519 1.1753834
3.9675028 -26.202967 -1.3888918
4.2717128 -28.24539 6.5951147
3.9676683 -26.265974 -0.46367553
4.2698798 -28.300077 7.6688085
0.91125375 -6.0973434 0.10761154
3.9289548 -26.352156 1.3963234
1.6973964 -11.384721 -2.2374265
0.8800928 -5.9100056 0.52276015
0.81297398 -5.4723949 0.67929977
3.8701251 -26.08242 -3.2375813
0.7810303 -5.27003 0.84380758
3.8707283 -26.11788 -2.3099759
0.87421429 -5.9059052 1.1605004
3.8722179 -26.190968 -1.387531
4.170248 -28.240852 6.5906162
3.870703 -26.244055 -0.46304727
4.1676922 -28.291876 7.6625967
0.88996506 -6.1004872 0.10761154
3.8332014 -26.340014 1.3949627
1.6570786 -11.38669 -2.2366631
0.84885472 -5.8400898 0.51631063
0.79529017 -5.4850221 0.68051845
3.7753606 -26.07023 -3.2344127
3.7735493 -26.089823 -2.3063152
3.7756364 -26.168745 -1.3856469
4.0660839 -28.216661 6.5816178
3.7733755 -26.217819 -0.46234915
4.0636864 -28.26992 7.6527615
0.87599063 -6.1550303 0.10851907
0.89663923 -6.3159175 0.33432212
1.6211861 -11.419619 -2.2420058
0.80804574 -5.6990132 0.50358588
0.76446414 -5.4052124 0.67028147
3.6809995 -26.059662 -3.2314878
0.74504727 -5.2812223 0.84474617
3.6785553 -26.075218 -2.303875
0.82091129 -5.8263259 1.1437092
3.6792572 -26.146164 -1.3837628
0.86570942 -6.1598425 1.4360875
3.6801701 -26.218948 -0.46213973
3.961494 -28.259062 7.6460328
0.85340059 -6.1501274 0.10837945
0.86554545 -6.245657 0.33044925
1.5802386 -11.417429 -2.2404792
0.82524949 -5.9702115 0.52729225
0.75670707 -5.4884739 0.68027472
3.588326 -26.026497 -3.2258818
0.72779995 -5.2856216 0.8450591
3.5869727 -26.083946 -2.3035262
0.81712949 -5.9497461 1.1673695
3.5828128 -26.12125 -1.3817741
3.5888615 -26.199308 -0.46158126
3.8625238 -28.233763 7.6356797
0.84135103 -6.2227626 0.32908851
1.5418425 -11.418715 -2.2397161
0.81449986 -6.0400496 0.53321886
0.72844863 -5.4161925 0.67101264
3.496712 -25.998903 -3.2210069
0.70947915 -5.2821326 0.8441205
3.4962165 -26.064104 -2.3007371
0.80286938 -5.9932857 1.1753834
3.493258 -26.111214 -1.3806226
0.82716298 -6.1828322 1.4401367
3.4971936 -26.175388 -0.46095297
3.7658088 -28.223436 7.629468
0.81180817 -6.1497049 0.10827474
0.82744509 -6.2850666 0.33222869
1.5044804 -11.427658 -2.2404792
0.7050634 -5.3772454 0.66589415
3.4049029 -26.00308 -3.220032
0.69026881 -5.2787008 0.84318191
3.39799 -26.020834 -2.2958565
0.68664187 -5.2581067 1.0307503
3.402776 -26.092947 -1.3790525
0.80607897 -6.1895466 1.4410365
3.3996131 -26.139845 -0.46011522
3.6632895 -28.205757 7.6211858
0.79237479 -6.1683679 0.10855397
0.81996638 -6.4008374 0.338195
1.4660732 -11.460359 -2.245822
0.75337702 -5.8973641 0.52014548
0.67900467 -5.3225689 0.6588257
3.3096018 -25.979361 -3.2156448
0.68554866 -5.388855 0.86038971
3.3031247 -26.000912 -2.2930675
0.66662467 -5.254745 1.0296054
3.3023479 -26.067598 -1.3770639
3.3083465 -26.151552 -0.46011522
3.5590019 -28.172373 7.6087623
0.77075118 -6.1791677 0.10869358
0.80453026 -6.4591551 0.34112579
1.4287267 -11.486837 -2.2500198
0.71559727 -5.7615538 0.50794363
0.65680796 -5.3033514 0.65614462
3.212167 -25.973587 -3.2134511
0.67352295 -5.4461074 0.86914998
3.2113669 -26.004375 -2.2923703
0.64851761 -5.2589884 1.029987
3.2093844 -26.063107 -1.3762264
0.75510848 -6.1409998 1.4284393
3.2126501 -26.127216 -0.45948696
3.4573402 -28.157782 7.6015153
0.75917029 -6.2551398 0.10998507
0.78437877 -6.4817519 0.3421725
1.3926235 -11.524888 -2.2565072
0.69381118 -5.7501702 0.50672346
0.64610368 -5.3626547 0.66321301
3.1217489 -25.948618 -3.2090638
0.67217857 -5.5955215 0.8926152
3.1179643 -25.993666 -2.2904527
0.72390079 -6.0349746 1.1814893
3.1172369 -26.026011 -1.3737143
0.72432619 -6.056397 1.4081936
0.75261438 -6.3022547 -0.11078788
3.3567455 -28.150497 7.5963397
0.75300968 -6.390811 0.11232369
0.67389905 -5.7366266 0.30271122
1.3580639 -11.560641 -2.2626133
0.75899422 -6.4707522 0.56999856
0.62830269 -5.3727636 0.66418797
3.0251689 -25.908094 -3.2027266
0.70251119 -6.0255675 0.96082056
3.0230629 -25.968769 -2.2873154
0.72961766 -6.2675748 1.2265203
3.023144 -26.008959 -1.3722489
0.64387107 -5.5478516 1.2894194
0.73958778 -6.3823128 -0.11214916
3.1134644 -26.908905 7.2583213
0.7161653 -6.2662468 0.11008978
0.6947937 -6.0981245 0.32165682
1.3201207 -11.604554 -2.2702456
0.689852 -6.0735989 0.5347876
0.61245286 -5.4005666 0.66735661
2.9333704 -25.906662 -3.2012641
0.63443017 -5.611855 0.89449239
2.9274824 -25.935604 -2.2834804
0.68839216 -6.1082816 1.1948459
2.9257827 -26.002003 -1.3713069
0.62831908 -5.5927787 1.2993174
0.72913706 -6.4901767 -0.11399912
0.689677 -6.2370296 0.10953131
0.62703919 -5.6796503 0.29946637
0.66537774 -6.0462642 0.53217298
0.58984065 -5.3771224 0.66418797
2.8345106 -25.881718 -3.1968768
0.61204141 -5.5885077 0.89042509
2.8351994 -25.929821 -2.2820859
0.66365784 -6.079421 1.1887401
2.8321872 -25.986246 -1.3699461
0.60984659 -5.6046238 1.3015668
0.7112363 -6.5364175 -0.11476702
0.68725669 -6.3262992 1.7050999
0.66515273 -6.2034922 0.10890301
0.58152896 -5.441505 0.28680107
0.64110261 -6.0188317 0.5295583
0.57851326 -5.4402413 0.67174387
2.7453172 -25.859392 -3.192977
0.57858074 -5.4589968 0.86946285
2.7392187 -25.888046 -2.2775538
0.6348176 -5.9995894 1.1727122
2.7409618 -25.947826 -1.367434
0.58594435 -5.5562272 1.2898693
0.6917662 -6.5706797 -0.1153255
0.6021654 -5.7292237 1.5435969
0.65793085 -6.3450084 0.11134635
0.56512672 -5.4592962 0.28763846
0.68840599 -6.6729603 0.58690673
0.55769306 -5.4244556 0.66955024
2.6517878 -25.837223 -3.1890771
0.55664277 -5.4235497 0.86351836
2.6521363 -25.885096 -2.2765079
0.6118741 -5.9822378 1.168896
2.6491554 -25.945312 -1.3668059
0.57761192 -5.6668057 1.3150638
2.660831 -26.104748 -0.45802096
0.57436347 -5.644702 1.5203031
0.62390971 -6.2178249 0.10907754
0.55341899 -5.5347672 0.2915113
0.57799536 -5.8010082 0.5100354
0.52496642 -5.2781243 0.65126985
2.5723689 -25.909086 -3.1968768
0.54335797 -5.4824662 0.8725915
2.5731404 -26.009195 -2.286618
0.60942763 -6.1600685 1.2032416
2.5678127 -26.001657 -1.3693181
0.5593909 -5.6745081 1.3164135
0.62058777 -6.3065748 -0.11061335
0.55862206 -5.6870475 1.5311736
0.61054224 -6.3176007 0.11078788
1.056837 -10.955629 -2.5410471
0.54973716 -5.7196937 0.50271428
0.50996977 -5.3254623 0.65687585
2.5066667 -26.224636 -3.2346563
0.53451693 -5.6024079 0.89136374
2.5080736 -26.287756 -2.3103244
0.54496872 -5.7225184 1.1173775
2.5040572 -26.342939 -1.3867983
0.53490692 -5.6377201 1.3074155
0.59671527 -6.3008437 -0.11047374
0.53431988 -5.652514 1.5213385
0.54992008 -5.9055476 0.10352767
1.0180482 -10.95343 -2.5396974
0.50697356 -5.465003 0.28763846
0.52719581 -5.6938033 0.50027394
0.50249988 -5.4477882 0.67174387
2.444412 -26.551477 -3.2738984
0.51351142 -5.5885024 0.8888607
2.444736 -26.60586 -2.337517
0.52750009 -5.7517567 1.1227202
2.4415839 -26.673729 -1.4037551
0.52657181 -5.7637548 1.3362092
0.58361435 -6.4004688 -0.11218407
0.53717262 -5.9025283 1.5881137
0.50878054 -5.6783838 0.09951362
0.97789776 -10.935565 -2.5347486
0.49162167 -5.5085158 0.28983656
0.54178739 -6.0825925 0.53426468
2.3774548 -26.850519 -3.3097279
0.4753952 -5.3797164 0.85538375
2.3738089 -26.916313 -2.3640122
2.3761275 -26.996441 -1.4202933
0.50508505 -5.7500277 1.33261
0.56633395 -6.4602365 -0.11319631
0.49838135 -5.6965213 1.5322088
0.51433849 -5.9749899 0.10467953
0.48313865 -5.6355658 0.29643089
0.52609998 -6.1619592 0.54106283
0.45013037 -5.2830405 0.65102613
2.3106194 -27.175129 -3.348726
0.46980748 -5.5368385 0.88010043
2.3074107 -27.250025 -2.3925993
0.46384647 -5.4893298 1.0708202
2.3050225 -27.335342 -1.4376688
0.48286349 -5.7382469 1.3294607
0.55400902 -6.5837255 -0.1153255
0.47752371 -5.686676 1.529103
0.47141796 -5.7217383 0.10021172
0.47472781 -5.7865915 0.30428126
0.4519178 -5.5203762 0.48458594
0.44076288 -5.4073229 0.66613787
2.2124531 -27.201221 -3.35092
0.44359815 -5.4656739 0.86852419
2.2166238 -27.311529 -2.3973057
0.42677504 -5.2697911 1.0276973
2.2182798 -27.450722 -1.4433211
0.46392584 -5.7534947 1.33261
0.51768547 -6.4342251 -0.11267274
0.49594516 -6.1775045 1.660583
0.43996367 -5.5778232 0.097663663
0.44498879 -5.6667547 0.2978963
0.44758546 -5.712605 0.50131983
0.42435485 -5.4404941 0.67003769
2.1165648 -27.196903 -3.3494573
0.41824734 -5.3864422 0.85569662
2.1191187 -27.29129 -2.3948655
0.40261483 -5.1968679 1.0131959
0.43230206 -5.6054702 1.2979677
0.50227958 -6.5277076 -0.11427836
0.4705337 -6.129117 1.6471245
0.41883814 -5.5573907 0.097279713
0.4233492 -5.6303582 0.29590753
0.44786409 -5.9843416 0.5250262
0.40123242 -5.3865137 0.66321301
2.0242994 -27.17606 -3.346045
0.41224051 -5.5473652 0.88103902
2.0226653 -27.282627 -2.393471
0.3946085 -5.3352952 1.0399091
0.41371107 -5.606873 1.2979677
0.47710663 -6.4814744 -0.11344065
0.42813504 -5.8300848 1.566373
0.40486038 -5.6205792 0.09836176
0.40224218 -5.5978646 0.29412812
0.41437533 -5.7950115 0.50829226
0.3837904 -5.393755 0.66394424
1.9324776 -27.158861 -3.3431201
0.39356324 -5.5447607 0.88041329
1.9307735 -27.269308 -2.3917279
0.37359408 -5.2895737 1.0307503
1.5410668 -21.873686 -1.149193
0.41004363 -5.8201017 1.3470069
0.44467655 -6.3274283 -0.11071807
0.40474629 -5.7736583 1.5508437
0.38388953 -5.5879765 0.097768381
0.39713579 -5.8104515 0.30522332
0.38228217 -5.6075153 0.49173269
0.36442477 -5.3732114 0.66126311
1.8360583 -27.141674 -3.3401952
0.36542919 -5.4160213 0.85976392
1.8344998 -27.259977 -2.3903332
0.35894111 -5.3476515 1.0418171
0.38608027 -5.7670546 1.3344096
0.44656712 -6.6880875 -0.11700094
0.38420543 -5.7692528 1.5492908
0.37157959 -5.7150612 0.099967383
0.37106848 -5.7381239 0.30135047
0.36826649 -5.7102799 0.50062257
0.34345779 -5.3547006 0.6588257
1.7335249 -27.100677 -3.3343453
0.35261822 -5.5277209 0.87728459
1.7328032 -27.238684 -2.387893
0.33772263 -5.3234611 1.0368562
0.42219913 -6.6734815 -0.35044158
0.37416902 -5.9142947 1.3681523
0.38251513 -6.0630202 -0.10604082
0.36208627 -5.755198 1.5451498
0.35809898 -5.8381376 0.10209658
0.33814406 -5.5604491 0.48737493
1.643492 -27.103746 -4.3006968
0.32634532 -5.3975353 0.66394424
1.6381959 -27.094675 -3.3328831
0.31441972 -5.2154026 0.82753843
1.6355625 -27.208767 -2.3847554
0.33182368 -5.5362582 1.0780709
0.40068802 -6.7048206 -0.35201168
0.35526496 -5.9447446 1.3749009
0.356116 -5.9764881 -0.10450501
0.34394294 -5.7892108 1.5539496
0.33039871 -5.6955562 0.099583432
0.32957995 -5.6986437 0.29915234
0.31970286 -5.5615396 0.48737493
1.5517943 -27.077494 -4.295691
0.30969065 -5.4203882 0.66662538
1.5467547 -27.072212 -3.3294709
0.30835629 -5.4136348 0.85882533
1.5445343 -27.200117 -2.3835351
0.31190997 -5.5098867 1.0727283
0.37653926 -6.6722126 -0.35023224
0.33148736 -5.8739004 1.3582544
0.34999844 -6.2212138 -0.1087634
0.32344502 -5.7671742 1.547738
0.30353957 -5.5508604 0.097035386
0.30936071 -5.6937766 0.29883832
0.34392563 -6.3504009 0.55640227
1.4609309 -27.062765 -4.292562
0.29608709 -5.502656 0.67661864
1.4509659 -27.053659 -3.326546
0.28291991 -5.2923794 0.83942741
1.4477792 -27.17152 -2.3805718
0.28903005 -5.4423246 1.0593716
0.35556903 -6.7173648 -0.35253504
0.30047461 -5.676528 1.3123645
0.33734119 -6.3941326 -0.11176521
0.30270302 -5.7566924 1.5446322
0.28370115 -5.5619211 0.097209901
0.30357072 -6.0133429 0.52676928
1.3599473 -27.032427 -4.2869306
0.27561861 -5.497757 0.67588747
1.3498212 -27.019142 -3.321671
0.29514608 -5.9286656 0.94017124
1.3475881 -27.164705 -2.3795261
0.26413804 -5.3433437 1.0399091
0.30647895 -6.2219076 -0.32647175
0.28829575 -5.8527656 1.3528557
0.29645315 -6.0398083 -0.10555216
0.28235719 -5.7731996 1.5487732
0.26529923 -5.6048708 0.097942911
0.28065249 -5.9512095 0.31223634
0.28655916 -6.1218872 0.53618211
1.2603037 -27.025393 -4.2850537
0.27591842 -5.9389458 0.7299974
1.2545767 -27.003862 -3.3192339
0.27664185 -5.9770174 0.94768006
1.2514719 -27.14138 -2.3770857
0.25791645 -5.6148772 1.0925723
0.29653659 -6.4803166 -0.3399744
0.2607381 -5.6979995 1.3168634
0.2731829 -5.9928637 -0.10471445
0.26351693 -5.8030982 1.5565379
0.25216299 -5.7295799 0.100107
0.25934139 -5.9161916 0.31035227
0.26392007 -6.0690598 0.53147572
0.27027518 -6.2402911 -0.98929167
1.1635662 -26.974157 -3.3150902
0.26623094 -6.1969671 0.98240852
1.1605263 -27.123484 -2.3751683
0.26378471 -6.1904135 1.2043865
0.25531444 -6.0163212 -0.31558585
0.24803805 -5.8448572 1.3506061
0.24731244 -5.8518844 -0.1022362
0.25247684 -5.9988842 1.6088192
0.22901525 -5.6284852 0.098326862
0.22572815 -5.5957637 0.29350007
0.24827035 -6.181386 0.54123718
0.21512198 -5.403111 0.66394424
0.24751745 -6.2441673 -0.76728946
0.2456111 -6.2235184 0.98647583
0.24561328 -6.2512798 -0.54733807
0.24911271 -6.3403463 1.2333894
0.2372362 -6.065032 -0.31809795
0.21990028 -5.6470666 1.3047161
0.22448327 -5.7907681 -0.10115415
0.22833179 -5.9167213 1.5865607
0.20639437 -5.5493174 0.096930668
0.20222217 -5.4887385 0.28784779
0.22176161 -6.0767279 0.53199863
0.22534089 -6.2045183 -0.98334718
0.22536105 -6.235074 -0.76607072
0.22211014 -6.1749854 0.97865415
0.22336368 -6.2401524 -0.54629219
0.20274071 -5.6917911 1.1070738
0.21203291 -5.982029 -0.31370175
0.19672833 -5.5777235 1.2885196
0.20363452 -5.7735305 -0.10084001
0.20117229 -5.7321386 1.5368675
0.18685694 -5.5740199 0.097349517
0.18389142 -5.5433393 0.29067394
0.19581722 -5.9340911 0.51944822
0.20433034 -6.2250104 -0.98647583
0.20534401 -6.2893915 0.77265167
0.2024423 -6.2338738 -0.76582706
0.17658158 -5.4669671 0.86633414
0.20157921 -6.2408938 -0.54629219
0.19497785 -6.1025071 -0.31998208
0.17707072 -5.5725331 1.2871699
0.18499842 -5.8541856 -0.1022362
0.1804049 -5.7405605 1.538938
0.1701003 -5.6645837 0.098920241
0.16288188 -5.4880486 0.28774312
0.17510271 -5.9347386 0.51944822
0.78051817 -26.932352 -3.3082654
0.15874907 -5.5109906 0.87321728
0.18002325 -6.2495265 -0.54698944
0.18333942 -6.4034753 1.2452196
0.17367475 -6.1031508 -0.31998208
0.1583897 -5.600389 1.2934686
0.17501238 -6.2265925 -0.1087285
0.16155136 -5.7836399 1.5503261
0.16629221 -6.26684 0.1094266
0.14478703 -5.4925523 0.28795245
0.1588926 -6.1085925 0.53461331
0.14253843 -5.5544448 0.68222463
0.68578994 -26.907129 -3.3048532
0.13564114 -5.3219123 0.84318191
0.68430674 -27.034044 -2.3659298
0.15353598 -6.1077185 1.1875952
0.15775257 -6.3193564 -0.33128664
0.13821177 -5.575582 1.2876198
0.15520549 -6.2611232 -0.10932188
0.13500354 -5.4847975 1.4700923
0.14402418 -6.2033834 0.10830963
0.1294947 -5.7505708 0.50323725
0.49496675 -21.980371 -3.4822314
0.12416191 -5.5568719 0.68246841
0.59642905 -26.903303 -3.304122
0.12010448 -5.4605961 0.86508268
0.58980173 -27.030291 -2.3654068
0.12946928 -5.933506 1.1536313
0.13956267 -6.4476395 -0.33798563
0.12047514 -5.6110787 1.2957181
0.12577039 -5.9057617 -0.10310882
0.11287904 -5.3442416 1.4323047
0.13550222 -6.8696175 0.11993293
0.12086625 -6.182333 0.32406428
0.11065367 -5.7629204 0.50428313
0.41835266 -21.98789 -3.4831703
0.10465232 -5.5513172 0.68173718
0.50214392 -26.88537 -3.3016844
0.10096276 -5.405664 0.85632241
0.49961215 -27.002218 -2.362792
0.10422418 -5.6865931 1.1055473
0.11295877 -6.222434 -0.32615772
0.10656217 -5.9271097 1.3686022
0.12106702 -6.7338867 -0.11755942
0.098354958 -5.5242205 1.480445
0.10360073 -6.314189 0.1102294
0.10063187 -6.2665911 0.32846051
0.085934363 -5.531785 0.67929977
0.41265285 -26.865055 -3.2990034
0.082812548 -5.4533863 0.86383122
0.405054 -26.983877 -2.3610492
0.083981007 -5.5946445 1.0876113
0.09273839 -6.2507329 -0.32762313
0.092163756 -6.2859602 1.4513842
0.0883497 -6.0984316 -0.10645968
0.083024628 -5.8007569 1.5544673
0.079681903 -6.3405342 0.11068317
0.081746496 -6.5964408 0.34573138
0.071044587 -5.8990378 0.51613629
0.062906489 -5.3792324 0.66053188
0.30922109 -26.842623 -3.2960784
0.062369797 -5.4141488 0.85757387
0.30542666 -26.921425 -2.3554711
0.060064357 -5.377018 1.0452517
0.22725059 -20.666388 -1.083145
0.071274139 -6.5863562 1.5206691
0.064698823 -5.9787397 -0.10436539
0.061680861 -5.7932944 1.5523967
0.057915352 -6.2607784 0.10928696
0.060159933 -6.7584567 0.35420978
0.052037127 -6.0845351 0.53234726
0.19120078 -22.356497 -3.5410511
0.045683078 -5.4528575 0.66955024
0.22002588 -26.821667 -3.2933974
0.05165299 -6.4335952 1.0190142
0.2109219 -26.854591 -2.3495445
0.042156532 -5.3673725 1.0433437
0.20673925 -26.920263 -1.4108729
0.043580085 -5.9449348 -0.10377201
0.045605894 -6.3730154 1.7076882
0.035577644 -6.1769571 0.10782097
0.034818131 -6.4350743 0.33725294
0.0318074 -6.0747123 0.53147572
0.11304028 -22.333324 -3.5372965
0.026968755 -5.5184913 0.67759365
0.10216106 -21.678953 -2.6618705
0.029231684 -6.4416375 1.0202657
0.11711901 -26.841217 -2.3483243
0.023805985 -5.455832 1.0605165
0.11275125 -26.916824 -1.4106635
0.025948439 -6.4639192 1.4923253
0.022727432 -5.9190545 -0.10331824
0.023025913 -6.2823391 1.6833591
0.01454651 -6.4110074 0.11190483
0.01242339 -6.471108 0.33913705
0.0091641601 -5.8337097 0.51038402
0.0078965556 -5.6555233 0.69441158
0.032755438 -26.810637 -3.291935
0.0056935283 -5.436234 0.86101538
0.023424214 -26.841463 -2.3483243
0.0040900959 -5.8583498 1.1387482
0.012781561 -24.414492 -1.2795097
0.0021199544 -6.0722742 1.4018949
0.0021809714 -6.2470484 -0.10904264
0.0011198269 -6.4137478 1.7185585
-0.0094222622 -6.7489662 0.11780374
-0.0099542849 -6.3372951 0.33212399
-0.011693652 -6.0907235 0.53287023
-0.043083277 -20.571529 -3.2582173
-0.012466637 -5.4947214 0.67466873
-0.060729817 -26.766916 -3.2865727
-0.013157807 -5.384861 0.85288078
-0.070218705 -26.821457 -2.3465812
-0.015980579 -5.7228646 1.1124165
-0.072302468 -24.36845 -1.2771021
-0.017779615 -5.9923496 1.383449
-0.019769974 -6.2930107 -0.10984544
-0.021473516 -6.4755321 1.735123
-0.032585785 -6.9148703 0.12070084
-0.029310439 -5.9976978 0.3143298
-0.03251658 -6.2101927 0.54332888
-0.029812088 -5.3378301 0.65541339
-0.1494263 -26.754658 -3.2851102
-0.031173425 -5.4124432 0.857261
-0.15923023 -26.833031 -2.3476269
-0.035822581 -5.8641319 1.1398931
-0.16938792 -26.958473 -1.4128617
-0.040430542 -6.4346132 1.4855767
-0.040999301 -6.3489008 -0.11082278
-0.041717283 -6.2899709 1.6854297
-0.05506688 -6.8587341 0.11972351
-0.052939404 -6.3191061 0.33118194
-0.054013446 -6.3156433 0.55256736
-0.17800149 -20.396965 -3.2306848
-0.050321769 -5.6533189 0.69416779
-0.24283533 -26.755959 -3.2853541
-0.050011519 -5.4063754 0.85632241
-0.056708355 -6.1303205 -0.53635645
-0.053159416 -5.6401796 1.0963886
-0.059068628 -6.1532717 -0.32249418
-0.057652984 -5.8985548 1.3618537
-0.058208313 -5.8508196 -0.10213149
-0.06071968 -5.9980922 1.6072664
-0.064818293 -5.62677 0.098222144
-0.073172636 -6.1651044 0.32312223
-0.072627239 -6.0305262 0.52764088
-0.06877695 -5.5498924 0.68149346
-0.25615764 -20.383303 -2.5029526
-0.069738172 -5.4733248 0.86695993
-0.2480007 -19.464064 -1.7030232
-0.076675162 -5.9363866 1.1540129
-0.35139146 -26.842859 -1.4068954
-0.078190893 -5.8944201 1.3609538
-0.081237286 -6.0445337 -0.10551725
-0.081235953 -5.9669371 1.5989841
-0.085299544 -5.6824946 0.099199481
-0.093802303 -6.1068978 0.32008675
-0.10036204 -6.4605398 0.56529218
-0.32964113 -20.983812 -3.32392
-0.089441359 -5.6309967 0.69148672
-0.32711402 -20.370377 -2.5014904
-0.093204468 -5.7416639 0.90951008
-0.31842354 -19.407246 -1.6981425
-0.10673307 -6.436626 1.2513254
-0.44943899 -26.821423 -1.4058486
-0.097753815 -5.8337092 1.3470069
-0.10589083 -6.2541513 -0.10918226
-0.10259278 -5.9975224 1.6072664
-0.10556632 -5.6521535 0.098675907
-0.1190342 -6.2562804 0.32793713
-0.12270183 -6.390408 0.55919123
-0.39682904 -20.480816 -3.2444513
-0.10988548 -5.6207075 0.69026798
-0.52606744 -26.670483 -3.2753608
-0.11582024 -5.8202829 0.92202479
-0.38879541 -19.368101 -1.6948305
-0.1132726 -5.5941281 1.0876113
-0.54721165 -26.793634 -1.4044878
-0.12359149 -6.0515251 1.397396
-0.13210729 -6.4136629 -0.11197464
-0.12409206 -5.9739289 1.6010547
-0.12319966 -5.5137839 0.096267477
-0.13758977 -6.110064 0.32029608
-0.14607759 -6.3879237 0.55901694
-0.46561041 -20.206692 -3.2012753
-0.61920846 -26.670471 -3.2756045
-0.13955398 -5.9659815 0.94517714
-0.63012391 -26.738415 -2.3399572
-0.14174642 -5.9705377 1.160882
-0.56557184 -23.648775 -1.2397343
-0.15030494 -6.2848387 1.4513842
-0.138505 -5.7494564 -0.10038625
-0.14100865 -5.8112311 1.5575731
-0.14327903 -5.583312 0.097489148
-0.15614793 -6.0436864 0.3168419
-0.16950279 -6.4730473 0.56651235
-0.52798128 -20.029289 -3.17343
-0.14922807 -5.6237726 0.69075549
-0.70701659 -26.644457 -3.2726798
-0.17136282 -6.4157114 1.0165112
-0.17038046 -6.3374939 -0.55465913
-0.15166672 -5.6050029 1.0899011
-0.64660168 -23.742601 -1.2447585
-0.16000473 -5.8752222 1.3569047
-0.16020016 -5.8449144 -0.10206167
-0.17513941 -6.3495131 1.7019941
-0.16578975 -5.720727 0.099897578
-0.17753702 -6.0530863 0.31736526
-0.1900266 -6.4405851 0.56372333
-0.61350286 -20.671118 -3.2754254
-0.17445181 -5.8434935 0.71781051
-0.60768592 -20.236835 -2.4858911
-0.16262639 -5.3843975 0.8531937
-0.19086815 -6.2830906 -0.54995275
-0.17108752 -5.6319418 1.0952437
-0.73692107 -24.119629 -1.2646462
-0.19756919 -6.4297566 1.4851269
-0.19629033 -6.3520002 -0.1109275
-0.17521995 -5.6382847 1.5115032
-0.18517382 -5.7021255 0.099583432
-0.19977851 -6.0863657 0.3191447
-0.21719925 -6.5473752 0.57313615
-0.66595572 -19.969837 -3.1646698
-0.1908119 -5.7218256 0.70294243
-0.63442457 -18.925165 -2.3250237
-0.18315096 -5.4351277 0.86132824
-0.7181865 -21.202805 -1.8560687
-0.20595415 -6.0182128 -0.31558585
-0.21729331 -6.3173018 -0.11033412
-0.1942322 -5.6183319 1.5063269
-0.20137705 -5.5715127 0.097314619
-0.21710764 -5.97785 0.31349242
-0.2361095 -6.4390602 0.56372333
-0.73609632 -19.979233 -3.1665468
-0.2409354 -6.5086303 0.7997067
-0.20278224 -5.4522209 0.86414409
-0.70432973 -18.848795 -1.6502067
-0.20939577 -5.5776033 1.0849401
-0.76677048 -20.329626 -1.0661882
-0.22047943 -5.8186603 1.3443075
-0.24312954 -6.4164181 -0.11207936
-0.21384348 -5.61762 1.5063269
-0.22639637 -5.73666 0.10021172
-0.24337688 -6.1127615 0.32061011
-0.26929834 -6.7049623 0.58708107
-0.87083799 -21.682034 -3.4368656
-0.22739266 -5.6370478 0.69270545
-0.80486232 -19.866388 -2.441287
-0.22116986 -5.4356899 0.86164117
-0.78419375 -19.190619 -1.6803627
-0.2279703 -5.5788398 1.0853217
-0.83500141 -20.346928 -1.0672349
-0.24771813 -6.0106583 1.3888478
-0.26337498 -6.3635826 -0.11117183
-0.23361126 -5.6206994 1.5073622
-0.28985015 -6.7467484 0.11787355
-0.2614283 -6.0360503 0.31663257
-0.27517188 -6.327826 0.55413622
-0.24758933 -5.648119 0.69416779
-1.1694723 -26.572529 -3.2658548
-0.23900983 -5.4092298 0.85757387
-0.85055918 -19.173832 -1.6791425
-0.26214674 -5.9094739 1.1498151
-0.28159794 -6.3230467 -0.33170533
-0.25668547 -5.7410994 1.3267614
-0.28513825 -6.3526354 -0.1109973
-0.25157765 -5.5831823 1.497527
-0.2595728 -5.587122 0.097628765
-0.281376 -6.0111604 0.31537652
-0.30211693 -6.4063821 0.56110865
-0.95816237 -20.242729 -3.2097228
-0.26552033 -5.6095462 0.68953681
-0.90990579 -19.152405 -2.3542721
-0.2567606 -5.384685 0.85381943
-0.91691232 -19.158806 -1.6780967
-0.26929864 -5.6064806 1.091046
-0.30486745 -6.323967 -0.33181
-0.27942121 -5.7751565 1.3348596
-0.29368544 -6.0699739 -0.10607573
-0.26994085 -5.5591145 1.4913154
-0.2833524 -5.65204 0.098780625
-0.33095726 -6.5786409 0.34520799
-0.30068874 -5.9356866 0.51997113
-0.28011236 -5.4915667 0.67515624
-0.97908229 -19.129116 -2.3518348
-0.27555588 -5.3837562 0.85381943
-0.98715395 -19.221151 -1.683849
-0.28482524 -5.5270801 1.0757812
-0.2996797 -5.7760925 1.3353095
-0.30637595 -5.9051576 -0.10321353
-0.32700551 -6.2816033 1.6854297
-0.30262765 -5.6610537 0.09895514
-0.33041686 -6.1406779 0.32228485
-0.32129875 -5.9326115 0.51979685
-1.1688905 -21.582943 -3.4234121
-0.2978909 -5.4826784 0.67418122
-1.176589 -21.585611 -2.6543145
-0.29531726 -5.4005132 0.85663521
-1.1996105 -21.867468 -1.9160318
-0.30885193 -5.6300015 1.096007
-1.1003522 -19.994263 -1.0494406
-0.35019934 -6.3432336 1.4666809
-0.33660689 -6.0777593 -0.10625025
-0.35096747 -6.3170719 1.6952648
-0.382884 -6.7220788 0.1175245
-0.35487986 -6.2113328 0.32605305
-0.34108481 -5.9335027 0.51997113
-0.3221851 -5.5707855 0.68514949
-1.5358883 -26.476322 -3.2563491
-0.31105098 -5.3620348 0.85069072
-1.1215509 -19.275644 -1.6892525
-0.37391186 -6.4069772 1.2475092
-1.135824 -19.404112 -1.0186671
-0.36936983 -6.2913923 1.4549835
-0.34468815 -5.870995 -0.10265506
-0.37293527 -6.3332305 1.6999235
-0.33634084 -5.57902 0.097558953
-0.37825185 -6.2379665 0.32751846
-0.37465024 -6.1430779 0.53844815
-1.2753677 -20.911993 -3.3182883
-0.34405017 -5.6251655 0.69197422
-1.6234334 -26.467123 -3.2558618
-0.3306146 -5.3747182 0.85288078
-1.1937385 -19.351158 -1.6962252
-0.40071681 -6.4958405 1.2650636
-0.38291329 -6.1896572 -0.32500634
-0.39481553 -6.3640428 1.4720796
-0.36654562 -5.8917098 -0.10303901
-0.38986766 -6.2489815 1.6776651
-0.38483858 -6.0328174 0.10551725
-0.40352497 -6.3084326 0.33128664
-0.42609429 -6.6249542 0.5808059
-1.3454305 -20.862074 -3.3110921
-0.37008819 -5.7229781 0.70416111
-1.3454953 -20.750265 -2.5531631
-0.34754142 -5.3597937 0.85069072
-1.3880759 -21.349203 -1.8717568
-0.38494506 -5.9047141 1.1501967
-1.3128216 -20.083519 -1.0547789
-0.41396987 -6.3159566 1.461282
-0.39157453 -5.9742699 -0.10450501
-0.41464132 -6.3093405 1.6942296
-0.41850138 -6.2350197 0.10907754
-0.4256784 -6.3089781 0.3313913
-0.46458584 -6.8500376 0.60067737
-0.38798708 -5.7058749 0.7022112
-1.8034171 -26.453478 -3.2556179
-0.36422816 -5.3289866 0.84599775
-1.4560503 -21.248816 -1.8633897
-0.40345022 -5.8877358 1.1471437
-1.8244355 -26.556875 -1.3950675
-0.43852687 -6.3670402 1.4734293
-0.41049719 -5.9449377 -0.10401635
-0.43893069 -6.3406177 1.7030294
-0.42629889 -6.0059733 0.1050984
-0.45018351 -6.3112817 0.33160067
-0.49437886 -6.9138703 0.60642964
-0.41088912 -5.7182035 0.70391744
-1.9035485 -26.426561 -3.2531807
-0.43419588 -6.0131946 0.95487607
-1.5333477 -21.235388 -1.8626926
-0.42350328 -5.8508973 1.1402746
-1.9262483 -26.54768 -1.3949627
-0.45463073 -6.2506366 1.4468851
-0.44422674 -6.0928974 -0.1066342
-0.46411934 -6.3504462 1.7061353
-0.44785464 -6.0124249 0.10523801
-0.47340384 -6.3256054 0.33243802
-0.51567912 -6.8743539 0.60311776
-0.44397461 -5.8909283 0.72536635
-1.9923471 -26.374224 -3.2475746
-0.45607752 -6.0234609 0.95675331
-1.5331509 -20.248476 -1.7765826
-2.0160277 -26.502958 -1.3929739
-0.46992841 -6.1635156 1.4270895
-0.49337626 -6.4561901 -0.11302178
-0.48525032 -6.3353038 1.7025118
-0.52762002 -6.764421 0.11843203
-0.49858075 -6.3777618 0.33526415
-0.53733164 -6.8427172 0.60050309
-0.45157945 -5.7250905 0.70513606
-2.0851781 -26.377005 -3.2487931
-0.47418165 -5.9982843 0.95299888
-2.0966768 -26.463671 -2.3225262
-0.4997212 -6.2795024 -0.33013523
-0.49670804 -6.2278848 1.4423862
-0.49506953 -6.2073407 -0.10869358
-0.50009954 -6.2566314 1.6818062
-0.49703813 -6.1108866 0.10701816
-0.54425633 -6.6626339 0.35033691
-0.56284231 -6.8606567 0.60224617
-0.47039962 -5.7215829 0.70489234
-1.8104492 -21.973965 -2.7072058
-0.47073483 -5.7012906 0.9060685
-0.48567161 -5.8697052 1.1448541
-0.51872683 -6.2559161 -0.32898384
-0.51509875 -6.1990151 1.4360875
-0.48752835 -5.8548422 -0.10255034
-0.52161443 -6.2509975 1.680771
-0.50788325 -5.9855771 0.10485406
-0.53919321 -6.3283548 0.33285671
-0.58643776 -6.868679 0.60311776
-0.47629544 -5.5557451 0.68466198
-2.2639902 -26.35429 -3.2478182
-0.49436057 -5.7429113 0.91295165
-2.2764115 -26.390823 -2.3174713
-0.50497687 -5.8542819 1.1421827
-1.6935722 -19.593954 -1.0307044
-0.53976035 -6.2321253 1.4441857
-0.50415909 -5.8092761 -0.10178243
-0.54259533 -6.2395153 1.6781827
-0.53176624 -6.0176301 0.10544744
-0.56163323 -6.3304133 0.33306605
-0.62415922 -7.0073843 0.61549383
-0.50450838 -5.6529107 0.69684899
-2.3531449 -26.314592 -3.2439187
-0.50664693 -5.6545806 0.89918542
-2.3697665 -26.396606 -2.3186915
-0.52625465 -5.8504362 1.1418011
-1.9735241 -21.897074 -1.1522285
-0.56294924 -6.2339873 1.4450855
-0.55069202 -6.0982533 -0.10687853
-0.56263065 -6.2183437 1.6730064
-0.54923469 -5.9658585 0.10457481
-0.61589277 -6.6644168 0.3507556
-0.65155506 -7.0369062 0.61828285
-1.975931 -21.2999 -3.3880579
-0.52926564 -5.6945081 0.7022112
-2.4501293 -26.311718 -3.2446496
-0.54333287 -5.823801 0.92640501
-2.1035821 -22.547585 -1.9812243
-0.54082602 -5.7860122 1.1295893
-2.4732335 -26.410046 -1.3901478
-0.5887115 -6.2746692 1.4549835
-0.5502072 -5.853302 -0.10262015
-0.59821731 -6.2585177 0.10974073
-2.0118685 -20.970804 1.1040794
-0.67592406 -7.0326052 0.61810851
-2.0487554 -21.277142 -3.385555
-0.55581069 -5.7617831 0.71074206
-2.5415754 -26.299055 -3.2441621
-0.5520466 -5.7019315 0.90732002
-2.184196 -22.559935 -1.9829674
-0.5399822 -5.5671854 1.0872297
-2.5659838 -26.407215 -1.3904618
-0.6128757 -6.2958503 1.4603822
-0.56947201 -5.8394046 -0.10241073
-0.60940951 -6.1489344 0.10785587
-2.0776505 -20.926254 1.1020906
-0.69849229 -7.0103779 0.61636543
-0.57967311 -5.7973375 0.7153731
-2.6329656 -26.286072 -3.2436748
-0.56918007 -5.6823792 0.90450418
-2.2494056 -22.41737 -1.9711143
-0.57551253 -5.7254467 1.1185224
-2.6569469 -26.386175 -1.3898338
-0.6307416 -6.2529559 1.4509343
-0.59184295 -5.8673277 -0.10293429
-0.63121271 -6.2467079 1.6823239
-0.63305813 -6.1787081 0.10841435
-0.6885705 -6.6974573 0.35284904
-2.738292 -26.543201 2.3345537
-2.1489408 -20.830418 -3.3167241
-0.59073269 -5.7164001 0.70562357
-2.7172554 -26.249554 -3.2402623
-0.58819705 -5.6724982 0.90325272
-2.2348096 -21.515621 -1.8924997
-0.59997231 -5.7762313 1.1288261
-2.7423627 -26.357353 -1.388787
-2.7951765 -26.819452 6.2252955
-0.6469956 -6.1973705 -0.1087634
-2.8033223 -26.449808 0.46426892
-2.2815607 -21.455421 1.1307708
-2.8281913 -26.551804 2.3361225
-2.2237329 -20.842428 -3.3198526
-0.59781498 -5.5938988 0.69075549
-2.8080254 -26.232012 -3.2392874
-0.63705605 -5.9414592 0.9464286
-2.4049149 -22.429272 -1.9735546
-0.58449119 -5.4422565 1.063951
-2.8337133 -26.341661 -1.388473
-2.8866901 -26.790155 6.2207966
-2.2723773 -21.054504 -0.36964196
-0.67397696 -6.2344661 1.6802533
-2.4445605 -22.321117 0.39194614
-2.4829552 -22.598806 1.1914805
-2.9186816 -26.521965 2.3343792
-0.61515951 -5.5720468 0.68831813
-2.8991365 -26.218105 -3.2388
-0.66301078 -5.98632 0.95393753
-2.9091222 -26.266447 -2.3120675
-0.6099785 -5.4987216 1.0753995
-2.9245405 -26.321684 -1.3879497
-2.9780297 -26.76055 6.2162971
-0.71018213 -6.3715672 -0.11190483
-0.69787806 -6.2512751 1.6854297
-2.9861114 -26.413694 0.46398968
-2.592433 -22.8599 1.2057159
-3.0107906 -26.507658 2.3340306
-0.637752 -5.5974779 0.69173044
-2.9904096 -26.205854 -3.2385561
-0.69354814 -6.0683613 0.96739089
-2.9994347 -26.244255 -2.3110216
-0.62715966 -5.4790039 1.071965
-3.0161791 -26.309332 -1.387845
-3.0707574 -26.744184 6.2149477
-0.73241812 -6.3690491 -0.11190483
-3.0792246 -26.411057 0.4641293
-2.5706027 -21.981833 1.1598696
-3.1028419 -26.493029 2.3336821
-0.6570549 -5.5932465 0.69148672
-3.0811746 -26.189341 -3.2378249
-0.7117216 -6.0403996 0.96332359
-2.5851035 -21.93984 -1.9327657
-0.64351982 -5.4533854 1.0673856
-3.1084638 -26.30261 -1.3880544
-0.63607132 -5.3741407 1.2493782
-0.75229216 -6.3465962 -0.11155578
-3.1814494 -26.799791 7.2314043
-3.1680562 -26.372353 0.46364063
-2.7627101 -22.930475 1.2104261
-3.191957 -26.454344 2.3312418
-2.5756612 -21.315319 -3.4005728
-0.68182242 -5.6342745 0.69684899
-3.1706612 -26.162661 -3.2358751
-0.71637964 -5.9025707 0.94173563
-2.7708929 -22.830618 -2.0120773
-0.66444755 -5.4666967 1.0704385
-3.1966355 -26.26186 -1.3864843
-3.2583351 -26.729832 6.2167473
-0.77541071 -6.351871 -0.1116954
-3.2740419 -26.780853 7.2293339
-2.7893498 -22.554714 0.3966932
-2.844949 -22.938532 1.2113682
-3.2857516 -26.454905 2.3322878
-0.69584173 -5.5865531 0.69124299
-3.2600014 -26.135674 -3.2339251
-2.8648937 -22.935476 -2.0221875
-0.68523109 -5.4779806 1.0731099
-3.2885394 -26.252522 -1.3865889
-0.6733318 -5.3676353 1.2489282
-0.80056846 -6.3729348 -0.11211426
-3.3677464 -26.771177 7.2298517
-3.3546159 -26.369427 0.46398968
-2.9280331 -22.952236 1.2126243
-3.3765652 -26.431414 2.3312418
-0.72088683 -5.627408 0.69660521
-0.77543944 -6.0365338 0.96394926
-2.8786809 -22.409559 -1.9766922
-3.4218028 -26.60084 5.2132835
-3.3824515 -26.258711 -1.387531
-3.3967824 -26.297493 -0.46283782
-3.4596853 -26.747763 7.2267456
-3.4445655 -26.341696 0.46371046
-3.4581234 -26.373749 1.3940207
-3.4662116 -26.399714 2.3294985
-0.74674523 -5.6720924 0.70245498
-0.79883307 -6.0514159 0.96676511
-3.4538751 -26.164207 -2.3089299
-3.5164378 -26.602358 5.2159548
-3.0414031 -22.977781 -1.2147176
-0.71718907 -5.4110999 1.2601758
-2.8923957 -21.793552 -0.38374352
-3.5509963 -26.720205 7.2226048
-3.0211277 -22.492559 0.39613473
-3.5496285 -26.357559 1.3938113
-3.5594084 -26.395353 2.3301959
-0.739676 -5.4707646 0.67783737
-0.82101321 -6.0564203 0.96801656
-3.5406351 -26.118429 -2.3059666
-3.6039922 -26.551012 5.2083225
-3.1264341 -23.002647 -1.2166017
-3.6267567 -26.648905 6.2090988
-3.0003107 -22.017128 -0.38786229
-3.6437237 -26.703817 7.2215691
-3.12994 -22.701761 0.40000919
-3.6418831 -26.346987 1.393916
-3.0087929 -21.738941 1.920041
-0.75331199 -5.4288239 0.67296261
-0.84242058 -6.0554738 0.96832943
-3.6301339 -26.09407 -2.3049207
-3.6955709 -26.530493 5.2067962
-3.0836589 -22.10936 -1.1699182
-3.7254145 -26.676615 6.2185469
-3.100688 -22.174856 -0.39082921
-3.7438803 -26.740679 7.2350278
-3.7179799 -26.288342 0.46343121
-3.7275536 -26.322899 1.393288
-3.7419128 -26.358023 2.32915
-2.6417549 -18.58519 -2.9731936
-0.77841043 -5.469398 0.67832482
-2.704438 -19.002375 -2.3567097
-0.86305428 -6.0565591 0.96895516
-3.7217607 -26.085184 -2.3052692
-3.7870443 -26.509657 5.2052693
-3.1828749 -22.252676 -1.1780825
-3.8130298 -26.658325 6.2171969
-3.7607417 -26.260036 -0.46304727
-3.8481624 -26.837116 7.264533
-3.8034163 -26.263992 0.46322179
-3.8125312 -26.29458 1.3924506
-3.8287263 -26.341528 2.3288014
-2.6988204 -18.545052 -2.9681878
-0.79826081 -5.4785719 0.67978722
-0.88684028 -6.0790744 0.97302246
-3.8088191 -26.076641 -2.3056178
-3.8783424 -26.520264 5.2098489
-3.3836732 -23.109545 -1.2240335
-3.8994327 -26.632038 6.2140479
-3.843159 -26.215765 -0.4624888
-3.891077 -26.25519 0.46329159
-3.8991179 -26.277843 1.3922412
-3.9148853 -26.320803 2.3281043
-0.81378913 -5.4582253 0.67759365
-0.90174526 -6.0409336 0.96739089
-3.8935053 -26.052046 -2.3045721
-3.9662633 -26.507257 5.2098489
-3.4416478 -22.973759 -1.2174392
-3.9891708 -26.628595 6.2162971
-3.2763467 -21.844299 -0.38555858
-3.9763207 -26.23028 0.46308213
-3.9874365 -26.272667 1.3926599
-4.0009489 -26.299797 2.3274069
-4.0208769 -26.368883 3.2751169
-4.0373769 -26.446119 4.2371845
-3.9798734 -26.03899 -2.3045721
-4.0487986 -26.459028 5.20298
-4.0047603 -26.14072 -1.3859609
-4.0777488 -26.617147 6.2167473
-3.3439171 -21.801689 -0.38500011
-4.082202 -26.218061 0.46315199
-4.0916419 -26.248554 1.3922412
-4.1089511 -26.299273 2.3288014
-4.1230102 -26.328997 3.272192
-2.9759383 -19.003948 -2.3618281
-0.94508529 -6.0283065 0.96645224
-4.0818963 -26.007055 -2.3031776
-4.1531534 -26.430923 5.2006903
-4.1046972 -26.092867 -1.3842862
-4.1848664 -26.602488 6.2171969
-3.4164722 -21.693274 -0.38332465
-4.1703792 -26.212276 0.46329159
-4.1767759 -26.223007 1.3916132
-4.1961412 -26.285501 2.3288014
-4.2096686 -26.31126 3.2717047
-3.039567 -18.997894 -2.3623157
-0.96319634 -6.0134358 0.96457505
-4.1706414 -26.009117 -2.3045721
-4.241396 -26.420885 5.2014537
-4.1889844 -26.065308 -1.3835535
-4.2712064 -26.57692 6.214498
-4.2069073 -26.147703 -0.46227935
-4.2579188 -26.202251 0.46336138
-4.2670021 -26.20038 1.3911945
-4.2826405 -26.267509 2.3284528
-4.296257 -26.293236 3.2712171
-3.0997775 -18.949944 -2.3576844
-4.2591195 -26.008909 -2.3057923
-4.3302588 -26.414423 5.20298
-4.2763681 -26.057188 -1.3838675
-4.3617373 -26.548391 6.2113485
-3.6419432 -22.14308 -0.39170179
-4.346735 -26.171446 0.46308213
-4.3584332 -26.185328 1.3911945
-4.3723412 -26.240608 2.3274069
-3.4642923 -20.768595 -3.3348703
-4.3906283 -26.293745 3.2731671
-3.1662321 -18.940969 -2.3579283
-4.4121819 -26.36615 4.234056
-4.343966 -25.958509 -2.3026547
-4.4224372 -26.399147 5.20298
-4.3722515 -26.071648 -1.3854376
-4.4537401 -26.529158 6.2104487
-3.7198787 -22.134178 -0.39177164
-4.4367237 -26.14823 0.46294254
-4.4531598 -26.189644 1.3922412
-3.1242681 -18.354879 1.6289408
-4.4803815 -26.266518 3.2717047
-3.2436874 -18.996332 -2.3662152
-4.5041881 -26.350588 4.234056
-4.434885 -25.945152 -2.302829
-4.5132365 -26.375809 5.2014537
-4.5482907 -26.524975 6.2131481
-3.8096337 -22.193981 -0.3930631
-4.5245581 -26.112881 0.46259347
-4.5424986 -26.162134 1.3916132
-4.5533814 -26.197668 2.3263609
-4.5720391 -26.250717 3.2717047
-3.2942958 -18.894936 -2.3550034
-4.5941038 -26.32303 4.2321787
-4.5257668 -25.931477 -2.3030033
-4.6039267 -26.352156 5.1999269
-3.7283826 -21.318731 -1.1342249
-4.6421976 -26.516617 6.2149477
-4.5701957 -26.078539 -0.46213973
-4.6812401 -26.684792 7.259357
-4.6184683 -26.11268 0.46287271
-4.6324005 -26.138252 1.3911945
-3.2840042 -18.511143 1.6448032
-4.6629491 -26.230688 3.2712171
-4.6859612 -26.306833 4.2321787
-3.5422056 -19.885826 -1.7671698
-4.6965747 -26.33979 5.2006903
-3.7764537 -21.158125 -1.1263746
-4.7319884 -26.484903 6.2113485
-4.6604953 -26.058493 -0.46206993
-4.76721 -26.628355 7.248486
-4.7102981 -26.100336 0.46294254
-4.7236123 -26.121922 1.3911945
-3.3372421 -18.436829 1.6392251
-3.32673 -18.360456 -2.9553602
-4.7580261 -26.233784 3.2736547
-3.3608813 -18.512094 -2.3101556
-4.7763453 -26.282541 4.230927
-4.7081146 -25.907091 -2.3037004
-4.7898922 -26.330963 5.2022166
-4.0900159 -22.461329 -1.1965047
-4.8237076 -26.464388 6.2104487
-4.74999 -26.034195 -0.46193027
-4.8615208 -26.619154 7.2505569
-4.7992086 -26.071936 0.46273312
-4.8133149 -26.09742 1.3907758
-3.5325224 -19.134325 1.7023259
-3.396544 -18.379816 -2.9603662
-4.8488493 -26.213112 3.2731671
-4.8673401 -26.261824 4.2303014
-4.2705946 -23.042072 -2.0502515
-4.8824925 -26.317944 5.20298
-4.8214936 -25.963879 -1.3839722
-4.9157004 -26.445473 6.2099986
-4.8408413 -26.017454 -0.46193027
-4.893136 -26.070747 0.46301234
-4.9077082 -26.098124 1.3917179
-3.5233681 -18.718529 1.6664177
-4.9432635 -26.21163 3.2751169
-3.8656225 -20.477833 -2.5587687
-4.9575152 -26.23691 4.2290497
-4.8881254 -25.869675 -2.3033519
-4.9706817 -26.281448 5.1991639
-4.9139533 -25.956701 -1.3844955
-5.0094352 -26.435814 6.2117987
-4.9301367 -25.99254 -0.46179068
-4.983356 -26.04958 0.46294254
-3.9505966 -20.612017 1.0998925
-3.5665417 -18.590672 1.6561334
-3.5195589 -18.328495 -2.9559863
-5.043345 -26.239054 3.2807231
-3.9640858 -20.60457 -2.5763183
-5.0528049 -26.238842 4.2321787
-3.7871089 -19.666176 -1.7521789
-5.0623879 -26.263939 5.1991639
-5.1016836 -26.418167 6.2117987
-5.021594 -25.979099 -0.46186048
-5.0727296 -26.024176 0.46280292
-4.0045309 -20.505972 1.094973
-3.7189391 -19.025892 1.6960508
-3.5751717 -18.273447 -2.9491029
-4.012691 -20.471777 -2.5614502
-5.1436014 -26.217167 4.2315526
-3.8307996 -19.525757 -1.7408488
-5.1555524 -26.253811 5.2006903
-5.1934934 -26.398283 6.2113485
-5.1137967 -25.969261 -0.46200013
-5.1627588 -26.002386 0.46273312
-4.0815411 -20.519293 1.0964384
-3.8055573 -19.114405 1.705115
-3.6636443 -18.384844 -2.9691267
-4.1113315 -20.593912 -2.5785117
-5.2335382 -26.191305 4.2303014
-3.8864415 -19.449745 -1.7352709
-5.2479324 -26.239508 5.2014537
-5.2840753 -26.372353 6.209549
-5.2044129 -25.951252 -0.46200013
-5.2574587 -26.003803 0.46308213
-4.1586909 -20.532326 1.0979037
-3.7772532 -18.632362 1.6632802
-5.3257189 -26.17675 4.230927
-3.7926424 -18.641436 -1.664326
-5.3418407 -26.232571 5.203743
-5.2926393 -25.967758 -1.3888918
-5.3776584 -26.361385 6.2113485
-5.2949719 -25.932926 -0.46200013
-5.3473887 -25.981379 0.46301234
-5.3640494 -26.016319 1.3921366
-3.9461563 -19.122494 1.7082524
-5.4202633 -26.173475 4.2334299
-3.7987003 -18.343239 -1.6388766
-5.4317875 -26.206076 5.2022166
-5.3852801 -25.9589 -1.389415
-5.4692483 -26.340542 6.2108984
-5.3838325 -25.906456 -0.46186048
-5.4364057 -25.954725 0.46287271
-4.2953701 -20.471518 1.0962291
-3.9637456 -18.87462 1.6873351
-5.5124111 -26.158258 4.234056
-3.8729804 -18.378605 -1.6432343
-5.5199866 -26.171587 5.1991639
-5.4750366 -25.936037 -1.3892057
-5.5651898 -26.340359 6.2153974
-5.482502 -25.926634 -0.4625586
-5.5286427 -25.943415 0.46301234
-5.5376773 -25.963581 1.3912992
-3.992141 -18.685312 1.6716471
-5.5966401 -26.128246 4.2321787
-3.9604967 -18.474072 -1.6529958
-5.6162553 -26.175192 5.203743
-3.7413886 -17.42235 -0.93388295
-5.6538229 -26.305531 6.2117987
-3.9532118 -18.393101 -0.32838446
-5.7056651 -26.524187 7.2697096
-5.6154909 -25.928844 0.46308213
-4.00737 -18.472383 0.99061513
-3.9617224 -18.231251 1.6322527
-5.6813126 -26.122572 3.2824292
-5.6903343 -26.120132 4.234056
-3.9833643 -18.269361 -1.6359133
-5.7038589 -26.160263 5.2045064
-3.8110654 -17.464483 -0.93681377
-5.7406096 -26.284733 6.2113485
-4.0302029 -18.437798 -0.32943162
-5.771379 -26.381441 7.2360635
-5.7085438 -25.920803 0.46329159
-4.5648861 -20.693403 1.1105691
-4.0694075 -18.432022 1.6514269
-5.7626076 -26.058001 3.276823
-5.7780585 -26.084681 4.2315526
-4.0473738 -18.271612 -1.6373078
-5.7985411 -26.155527 5.2075596
-3.8962305 -17.560265 -0.94267535
-5.8352823 -26.277851 6.214498
-4.0832591 -18.372864 -0.32852411
-5.8525271 -26.312105 7.2226048
-5.7937441 -25.877302 0.46287271
-4.6397138 -20.689034 1.1111971
-4.1197581 -18.355497 1.645849
-5.8469987 -26.008677 3.2731671
-5.8725452 -26.079771 4.234056
-4.105875 -18.234051 -1.635216
-5.8863497 -26.119804 5.2045064
-3.944762 -17.490055 -0.93963981
-5.9158187 -26.207897 6.2028003
-4.151772 -18.378004 -0.32887316
-5.9370956 -26.259481 7.2138047
-5.8840413 -25.85692 0.46287271
-4.7008061 -20.624031 1.1085804
-4.235209 -18.566332 1.6660691
-5.9377508 -25.988108 3.2731671
-5.964427 -26.062963 4.2346816
-4.1730552 -18.235146 -1.6366106
-5.9783664 -26.102924 5.2052693
-3.9544725 -17.2523 -0.92760259
-6.0085702 -26.192787 6.2041502
-4.2159009 -18.3634 -0.32887316
-6.0287199 -26.238598 7.2138047
-4.8696017 -21.059029 0.37728614
-4.5406899 -19.605431 1.0546743
-4.3179855 -18.629074 1.6730416
-6.023942 -25.947886 3.2707298
-6.056263 -26.045835 4.2353072
-4.2809043 -18.410646 -1.6536931
-4.6392999 -19.936209 3.9787495
-4.0848885 -17.539898 -0.94382668
-6.0986371 -26.165958 6.2028003
-4.2636204 -18.278463 -0.32761657
-6.1215944 -26.223036 7.2153578
-4.9330235 -20.999071 0.37651822
-6.0824885 -25.851635 1.3918226
-4.3994293 -18.683704 1.6793169
-6.1199455 -25.949884 3.2736547
-6.1453271 -26.016846 4.234056
-4.3616319 -18.465397 -1.6599683
-4.7174416 -19.956196 3.9860003
-4.1842542 -17.686853 -0.95251447
-6.18859 -26.138823 6.2014503
-4.3292413 -18.271254 -0.3277562
-6.2148733 -26.209028 7.2174282
-5.0220714 -21.047857 0.37770498
-4.6022458 -19.258558 1.0377175
-4.4182768 -18.474459 1.6618856
-6.2086444 -25.920641 3.2726798
-6.2370243 -25.999077 4.2346816
-4.230854 -17.636343 -1.5867574
-4.7783685 -19.903334 3.9787495
-4.2268353 -17.592518 -0.94822294
-6.2820721 -26.126534 6.2037001
-4.4304228 -18.411566 -0.33054858
-6.3040609 -26.177784 7.2148399
-5.0813832 -20.971897 0.37665784
-4.6562552 -19.18803 1.0347867
-4.5255227 -18.635109 1.677748
-4.9611092 -20.397701 2.5775368
-6.3333511 -26.000177 4.2384357
-4.2631555 -17.501446 -1.5759501
-6.3431668 -26.020725 5.2060328
-4.2759137 -17.527206 -0.94550145
-6.3778558 -26.123379 6.208199
-4.4851699 -18.357138 -0.32985049
-6.3944831 -26.151863 7.2138047
-5.1364093 -20.880241 0.37533146
-4.468554 -18.138027 0.97899652
-4.6320405 -18.787498 1.6929132
-5.0646372 -20.511311 2.5941112
-6.4307098 -26.004759 4.242816
-4.3046117 -17.40716 -1.5688033
-4.8624892 -19.648422 3.9344816
-4.3308263 -17.486973 -0.94414073
-6.4699392 -26.104738 6.2090988
-4.559814 -18.384066 -0.33061838
-6.4903831 -26.148136 7.2189813
-5.2237954 -20.920391 0.37637863
-4.5454102 -18.176571 0.98192734
-4.7043629 -18.798275 1.6953535
-5.1651626 -20.609037 2.6087353
-5.2788644 -21.04714 -2.6643078
-5.0393195 -20.077204 3.2785537
-4.3949356 -17.509907 -1.5794364
-4.9520926 -19.715107 3.9512727
-4.3782082 -17.417511 -0.94120997
-6.5600724 -26.078218 6.208199
-4.6307917 -18.395187 -0.33110705
-6.5835056 -26.132812 7.2210517
-5.3066139 -20.940798 0.37707669
-4.5872116 -18.075415 0.9773218
-4.805264 -18.920776 1.7079039
-6.5767951 -25.858364 3.2760921
-5.3395724 -20.978567 -2.6579707
-5.0898695 -19.982922 3.2660391
-4.4294744 -17.390198 -1.5700234
-4.9563847 -19.444681 3.9005177
-4.4399672 -17.405993 -0.9414193
-6.6491351 -26.047607 6.2063999
-4.6702261 -18.28204 -0.32936183
-6.6737304 -26.10593 7.2200165
-4.9872713 -19.396027 0.3495717
-4.6632266 -18.109583 0.98004323
-4.8722754 -18.907745 1.7082524
-6.6680131 -25.839092 3.2765794
-5.4346066 -21.044371 -2.668695
-6.7016845 -25.932167 4.2421904
-4.6556568 -18.015064 -1.627895
-5.0493016 -19.524197 3.91998
-4.4811811 -17.314981 -0.9373371
-6.7439241 -26.03933 6.2099986
-4.6858535 -18.079794 -0.32601094
-6.7657871 -26.086216 7.2210517
-5.0337443 -19.297232 0.3481057
-4.7269192 -18.095123 0.9801479
-4.9251428 -18.840508 1.7037203
-6.7631931 -25.834864 3.279017
-5.5271492 -21.098242 -2.6779571
-6.7951698 -25.92008 4.2440677
-4.847857 -18.492083 -1.6725186
-5.0979919 -19.432392 3.9050972
-4.5385518 -17.287642 -0.93670905
-6.8352761 -26.017515 6.2104487
-4.7296128 -17.989836 -0.32468456
-6.856801 -26.062439 7.2210517
-4.8023653 -18.150572 0.3277213
-4.79568 -18.099752 0.98129922
-4.9050956 -18.499659 1.6744362
-6.8502731 -25.799585 3.2775543
-4.7667909 -17.940117 -2.2792008
-6.8825617 -25.88475 4.2421904
-4.8662996 -18.301754 -1.6568305
-5.1774011 -19.458117 3.9138744
-4.600925 -17.279413 -0.93712771
-6.9320717 -26.016094 6.2158475
-4.7439518 -17.791592 -0.3214035
-6.9641705 -26.099941 7.2381339
-5.1465764 -19.180504 0.34663972
-4.8526139 -18.059757 0.98004323
-4.9406681 -18.374674 1.6646746
-6.9753885 -25.905861 3.2941287
-4.7415857 -17.597525 -2.2377651
-4.9343028 -18.300045 -1.6582252
-2.2789619 -8.446208 1.7004899
-4.6612144 -17.263247 -0.93712771
-2.2660551 -8.3867378 2.0056636
-6.9271936 -25.61998 -0.46325666
-2.2821159 -8.4344826 2.3412771
-2.2806225 -8.3709831 0.45469484
-2.2691824 -8.323266 0.75476873
-2.2674258 -8.305397 1.0570948
-4.8118773 -17.61342 -2.2419088
-2.2831762 -8.3516111 1.3713048
-5.0092297 -18.310665 -1.6608399
-2.2856357 -8.3548794 1.6836987
-4.7341003 -17.293104 -0.93963981
-2.2948031 -8.3768969 2.0052137
-2.3079665 -8.4134235 2.3376536
-2.2921774 -8.3103657 0.15047465
-2.2874951 -8.282114 0.45029861
-2.2954245 -8.2995291 0.75337422
-2.2698839 -8.2016106 -1.3478395
-2.301698 -8.3165627 1.0595322
-2.2734792 -8.2090292 -1.0458828
-2.3091486 -8.3321695 1.3694276
-2.2820501 -8.2288094 -0.74709904
-2.3183427 -8.3540134 1.6852252
-2.2862313 -8.2327261 -0.44778651
-2.3286211 -8.3796949 2.0079131
-2.2958138 -8.2616358 -0.14967184
-2.337321 -8.4053154 2.3376536
-2.3161552 -8.2788 0.1500558
-2.3223155 -8.2952356 0.45144999
-2.283139 -8.1498232 -1.6451553
-2.3243804 -8.2914667 0.75337422
-2.2926302 -8.1727161 -1.344398
-2.3332374 -8.3118925 1.0600196
